ply
format ascii 1.0
comment Created by Open3D
element vertex 1892
property double x
property double y
property double z
end_header
-73.8201 -169.245 516.136
0.064881 -77.4051 516.207
-27.5076 -107.455 516.185
-35.7729 -141.27 516.13
23.8083 -89.414 516.147
40.2161 -171.672 515.969
25.8429 -217.515 515.901
23.7754 -107.372 516.109
-69.6774 -147.481 516.153
-71.7097 -163.645 516.123
8.13257 -81.6572 516.164
-1.81013 -75.2718 516.188
-11.7983 -81.7131 516.187
-31.8965 -166.749 516.054
-29.3977 -109.735 516.155
-32.1189 -213.257 515.965
-41.5819 -113.836 516.162
30.1419 -175.252 515.951
-49.8286 -115.803 516.158
32.0004 -112.911 516.052
64.2271 -239.398 515.765
-69.7949 -143.208 516.118
23.8529 -95.4881 516.081
-71.6213 -139.283 516.124
-31.8566 -215.584 515.929
-34.1712 -165.828 516.022
-53.5344 -118.008 516.127
32.1 -221.287 515.806
-73.3317 -172.888 516.027
-31.6595 -201.524 515.899
-69.5034 -141.326 516.06
-48.0639 -115.616 516.076
68.1915 -117.69 515.92
44.1418 -117.318 515.951
-1.73584 -77.3336 516.084
-31.8406 -203.476 515.884
-69.7357 -145.432 516.036
-25.9704 -169.578 515.933
39.9302 -116.747 515.943
25.9434 -207.44 515.791
24.1284 -109.233 515.975
-36.2218 -111.355 516.049
-69.9858 -155.483 516.008
-20.0582 -82.7368 516.077
31.1662 -112.31 515.95
-58.34 -120.983 516.051
34.3447 -173.275 515.825
-61.982 -123.778 516.039
19.9685 -83.9998 516.004
1.98652 -175.602 515.855
25.8082 -199.542 515.777
24.3306 -180.554 515.814
62.6954 -239.496 515.648
42.3745 -226.622 515.692
1.98902 -79.4601 516.017
-39.4064 -112.17 516.009
-70.1219 -157.493 515.963
-67.8658 -127.464 516.015
2.67805 -177.111 515.824
35.867 -113.739 515.896
-70.1196 -159.416 515.944
-38.1922 -161.354 515.891
-38.034 -141.759 515.924
22.849 -181.786 515.761
-25.9378 -85.4308 515.993
-41.8076 -114.843 515.938
65.9742 -117.371 515.787
43.4303 -226.437 515.613
-40.3113 -113.145 515.929
-70.246 -163.242 515.875
-71.9229 -137.399 515.924
29.3317 -176.878 515.716
45.9494 -117.227 515.804
38.0353 -224.744 515.607
31.8283 -220.068 515.615
18.1883 -83.8438 515.885
25.3864 -178.69 515.69
33.8879 -113.186 515.797
25.9025 -111.202 515.807
-31.7152 -111.099 515.881
-33.0173 -166.433 515.779
6.10622 -81.3021 515.887
16.0635 -83.5376 515.868
-71.7534 -131.415 515.886
-69.94 -151.385 515.846
33.8729 -221.414 515.571
-73.6574 -171.447 515.804
-33.9335 -111.38 515.864
-70.0098 -153.417 515.831
-3.88988 -79.5177 515.876
-35.8831 -165.015 515.759
24.5483 -203.002 515.606
-71.9881 -133.32 515.862
-71.9134 -135.333 515.857
-51.4583 -116.16 515.864
10.2214 -82.5837 515.834
38.6618 -116.812 515.731
-66.478 -126.852 515.846
30.0156 -112.871 515.742
-31.8461 -207.29 515.645
-72.0531 -165.171 515.775
-1.8238 -71.2512 515.856
-74.0159 -167.34 515.771
42.0731 -117.263 515.71
-37.8247 -163.273 515.728
26.2614 -219.167 515.539
-30.3796 -110.641 515.814
25.683 -211.472 515.551
-43.7921 -115.088 515.821
-0.0457586 -79.5093 515.822
-28.1261 -109.091 515.801
26.4437 -177.899 515.596
4.57513 -179.03 515.62
-46.2185 -115.463 515.802
12.0404 -82.6898 515.784
-33.6965 -139.68 515.73
53.8992 -117.316 515.657
-70.2642 -129.381 515.794
30.012 -112.251 515.68
-31.7825 -205.44 515.587
-1.84118 -79.5033 515.783
-60.4149 -122.737 515.768
14.2011 -82.9661 515.736
-39.728 -147.441 515.682
24.5993 -205.285 515.484
-62.5968 -124.553 515.748
40.6854 -225.671 515.422
-32.4327 -219.121 515.529
-31.7675 -211.587 515.54
-25.2717 -170.699 515.607
-10.0731 -81.1584 515.753
-70.0351 -161.313 515.68
25.6781 -213.222 515.453
-6.01253 -80.7105 515.74
31.5889 -223.168 515.419
-52.2573 -117.006 515.724
33.8631 -220.211 515.418
-39.6334 -157.37 515.631
36.8936 -223.159 515.401
22.1928 -85.2824 515.675
4.13192 -81.1118 515.701
24.3893 -199.833 515.449
24.3968 -110.794 515.606
-72.5915 -168.202 515.623
-72.4379 -171.989 515.609
-23.8845 -83.6925 515.696
-26.0036 -91.41 515.681
-21.8628 -83.1284 515.684
-31.5025 -209.8 515.46
-26.1093 -93.4403 515.669
-39.8071 -151.414 515.57
-8.09721 -81.0769 515.659
-39.8269 -149.33 515.56
-39.9637 -145.413 515.563
-26.0123 -95.2052 515.627
28.6384 -112.671 515.52
-26.4663 -101.486 515.61
25.2184 -201.312 515.356
-26.1425 -103.281 515.578
-39.7586 -143.506 515.516
68.8514 -243.748 515.18
-22.0794 -171.324 515.433
-39.7156 -155.419 515.479
-69.965 -139.631 515.547
24.5654 -213.236 515.284
-25.953 -87.4347 515.583
-39.1821 -163.053 515.454
-37.8539 -111.765 515.541
24.7591 -217.188 515.26
-68.1096 -147.488 515.51
-39.876 -153.366 515.459
-68.6591 -157.602 515.477
22.5867 -87.3274 515.488
-39.716 -159.574 515.432
-25.9645 -89.4211 515.543
-67.8644 -141.456 515.495
55.9165 -117.187 515.375
-27.307 -168.806 515.383
-39.3636 -142.219 515.445
-37.3136 -164.718 515.4
22.646 -93.2498 515.454
-34.5776 -220.839 515.291
-26.6305 -107.206 515.489
20.6752 -85.14 515.464
22.7193 -101.332 515.4
-26.2568 -105.255 515.456
24.4156 -201.595 515.208
23.8469 -207.16 515.198
36.4734 -115.135 515.352
-56.4215 -119.935 515.459
-30.7103 -209.456 515.253
30.2086 -219.869 515.149
-67.9764 -145.242 515.416
-68.1785 -143.407 515.407
-70.2885 -133.387 515.416
24.0714 -215.546 515.138
-40.7243 -114.463 515.397
37.023 -224.843 515.09
-54.6714 -118.859 515.398
22.7917 -103.23 515.325
22.7171 -89.4413 515.35
-70.7381 -135.265 515.379
-24.0039 -171.036 515.251
-39.604 -161.222 515.287
2.02606 -81.0332 515.381
-41.1721 -149.002 515.31
-25.9431 -97.4064 515.386
22.6386 -105.042 515.291
0.282731 -80.8792 515.365
-68.0904 -161.095 515.304
-24.8046 -96.7183 515.355
8.16528 -82.6181 515.338
-41.1687 -141.942 515.267
-24.5771 -84.8941 515.352
-26.1674 -99.2895 515.325
-30.7029 -207.36 515.129
-68.6312 -159.266 515.268
-68.4489 -155.354 515.264
22.6552 -99.424 515.236
22.65 -95.4144 515.234
22.8469 -107.237 515.202
-1.61193 -80.7903 515.281
-30.7003 -204.843 515.086
-41.39 -152.15 515.192
-68.0647 -149.507 515.223
-70.4938 -131.254 515.255
22.7106 -91.4619 515.203
-68.2139 -153.291 515.206
-36.1615 -140.328 515.185
-68.6649 -163.284 515.178
-3.88499 -81.0862 515.235
-67.9836 -139.873 515.183
-18.4329 -82.5981 515.212
-41.155 -153.031 515.096
-70.5248 -137.319 515.15
25.196 -202.951 514.898
-66.309 -141.524 515.124
-41.3355 -147.572 515.08
-67.9725 -151.441 515.099
69.7022 -242.409 514.749
-13.6571 -82.5842 515.126
-41.2639 -145.287 515.037
-41.6009 -161.633 514.989
22.4755 -96.7701 515.026
-41.1457 -157.313 514.98
22.9281 -108.464 514.983
37.4506 -223.773 514.72
-41.1437 -144.355 514.954
-24.3344 -88.9314 515.03
25.3379 -215.439 514.702
-66.1358 -142.538 514.955
25.1855 -218.307 514.683
-16.1525 -82.5611 514.981
25.1853 -210.13 514.678
-11.1529 -82.5543 514.939
-24.7847 -87.5532 514.943
-73.1607 -169.532 514.826
-31.1313 -206.505 514.696
-51.133 -116.165 514.879
-1.61061 -77.5476 514.883
-40.4483 -158.842 514.779
-31.1289 -210.122 514.658
-31.1297 -202.861 514.67
-40.1071 -153.502 514.771
-32.9434 -216.92 514.624
-71.1171 -131.6 514.831
67.505 -239.656 514.446
-69.2927 -156.57 514.777
23.5987 -110.002 514.741
-69.8061 -139.257 514.794
-40.2169 -155.321 514.725
-69.8429 -163.675 514.74
-0.70184 -74.8112 514.812
-25.4593 -91.8445 514.801
-40.669 -157.454 514.697
-67.6774 -149.209 514.74
-25.2316 -89.3441 514.789
-25.4578 -92.9747 514.77
-41.1266 -113.863 514.74
-31.2748 -199.188 514.567
-67.4685 -140.657 514.722
-31.1225 -202.36 514.551
-40.2927 -161.771 514.638
-71.5565 -135.661 514.724
68.057 -244.783 514.328
35.3988 -114.061 514.607
-40.3626 -143.664 514.65
-31.3467 -211.308 514.503
-28.5126 -168.199 514.568
28.219 -220.066 514.395
21.551 -85.6115 514.651
-57.0178 -120.209 514.685
-67.1752 -143.361 514.65
-71.5486 -133.602 514.667
-67.809 -153.597 514.624
21.9022 -99.4028 514.604
33.3397 -219.533 514.363
-40.2062 -149.338 514.587
-59.2859 -122.02 514.661
-69.2699 -156.065 514.608
-5.86229 -81.6423 514.659
32.6579 -219.528 514.35
-69.5382 -161.685 514.577
5.19994 -179.618 514.436
-25.3136 -103.571 514.608
-25.2232 -98.3963 514.617
-71.083 -138.803 514.584
3.83931 -82.0432 514.584
23.9959 -207.414 514.324
-69.8606 -133.424 514.584
-67.817 -151.216 514.546
32.0774 -221.697 514.28
42.0298 -225.989 514.249
-67.6684 -157.236 514.514
-25.4477 -99.5971 514.565
-25.523 -101.261 514.558
-25.6748 -96.003 514.568
23.9054 -213.549 514.283
-40.6525 -146.495 514.489
21.7722 -89.5231 514.513
-38.3073 -140.746 514.495
29.4753 -220.393 514.252
-25.5597 -105.475 514.536
-1.6096 -74.7746 514.56
-69.4129 -129.636 514.545
-3.87978 -81.5185 514.548
-67.8903 -159.267 514.475
-71.6381 -171.296 514.44
21.7691 -103.393 514.436
-69.5731 -131.47 514.498
25.618 -198.611 514.248
40.0361 -225.612 514.177
21.542 -95.2746 514.434
19.9541 -84.2927 514.456
-38.6016 -163.939 514.383
21.7357 -105.523 514.413
21.7889 -101.411 514.415
25.1623 -207.671 514.209
-68.063 -161.421 514.409
21.6771 -93.4547 514.412
21.5868 -87.6459 514.421
-32.4749 -138.752 514.396
23.4999 -181.516 514.241
-34.287 -166.12 514.342
-67.3155 -145.567 514.42
-69.7716 -135.377 514.442
22.0245 -97.5663 514.391
43.9095 -227.217 514.121
31.7376 -222.728 514.142
21.9489 -91.3185 514.397
-42.0468 -153.525 514.36
66.1814 -239.865 514.057
25.1606 -206.295 514.173
24.0142 -111.425 514.351
-67.1998 -146.924 514.404
-71.8351 -169.28 514.368
21.9549 -107.5 514.358
67.7906 -243.431 514.029
-69.6965 -137.425 514.404
-40.0829 -141.568 514.351
-42.2042 -145.495 514.344
-67.707 -139.144 514.376
35.8613 -221.86 514.076
60.1789 -117.456 514.233
36.3719 -223.24 514.062
-41.9773 -143.351 514.301
31.7377 -173.731 514.144
-25.7704 -107.501 514.34
-22.9418 -84.2792 514.374
-42.0219 -149.408 514.274
-40.0879 -163.576 514.24
-31.0978 -205.829 514.143
25.8142 -219.479 514.042
-33.9761 -166.836 514.216
-71.6425 -172.595 514.252
-67.8706 -128.011 514.327
6.10666 -82.2267 514.312
2.06336 -82.0004 514.317
-31.7093 -217.34 514.102
-27.6749 -109.707 514.289
-26.3356 -169.847 514.175
24.5516 -179.648 514.09
-65.6855 -141.351 514.274
-61.5137 -123.977 514.3
-65.8556 -147.384 514.259
-42.0389 -157.519 514.208
-39.6633 -113.63 514.276
25.6057 -211.67 514.004
24.0709 -211.355 514.003
-65.8574 -143.408 514.241
67.841 -241.443 513.883
-35.9149 -165.7 514.16
-33.975 -139.003 514.206
27.4291 -112.149 514.172
-67.6669 -155.416 514.215
24.0176 -215.626 513.976
-1.87566 -81.6973 514.258
-41.9883 -155.478 514.172
48.0134 -171.944 514.023
-24.0214 -87.3883 514.269
25.8195 -111.96 514.155
-41.9868 -159.329 514.153
-71.8764 -167.246 514.168
-42.0905 -151.309 514.157
-71.6149 -165.866 514.165
-31.1811 -215.486 514.019
-21.8196 -83.7001 514.251
-9.77641 -82.2146 514.237
-24.0705 -89.4472 514.24
40.1274 -117.18 514.099
23.7391 -205.449 513.95
-42.2689 -147.301 514.135
43.9641 -226.127 513.875
-42.0219 -161.354 514.1
23.7536 -203.303 513.933
-53.7856 -118.275 514.176
30.1388 -175.433 513.957
-31.6526 -219.07 513.942
24.0133 -209.354 513.887
-23.9165 -85.5328 514.18
26.2822 -177.742 513.936
32.5254 -113.256 514.047
-37.8274 -112.067 514.14
-73.4316 -171.175 514.073
-10.6822 -82.4282 514.153
-24.1115 -95.3721 514.145
22.2315 -109.401 514.049
1.34031 -175.311 513.953
-63.943 -125.523 514.129
-29.8535 -207.165 513.92
69.1102 -241.7 513.724
42.0296 -226.994 513.785
55.9264 -117.451 513.971
-42.0544 -141.683 514.052
-65.7692 -151.362 514.06
-24.115 -93.4104 514.114
31.4945 -174.891 513.885
-0.126412 -81.7533 514.096
-1.15455 -71.0808 514.116
-1.38139 -69.2661 514.116
-7.95881 -81.9656 514.098
14.0416 -83.6386 514.065
37.5773 -116.051 513.97
2.14959 -177.486 513.899
-42.1096 -115.205 514.068
33.8175 -221.858 513.742
-31.2309 -212.812 513.842
62.0315 -239.089 513.668
-24.0255 -97.427 514.044
28.3239 -112.629 513.946
28.1068 -221.041 513.743
-29.7205 -201.236 513.855
-24.0114 -91.3831 514.052
-29.9788 -167.645 513.917
18.0768 -84.1282 514.006
67.9209 -117.827 513.872
-15.8639 -82.6695 514.042
64.2071 -117.622 513.872
26.2392 -220.94 513.713
30.362 -112.998 513.908
15.8523 -84.0593 513.956
-37.4324 -139.982 513.914
6.30381 -82.6996 513.961
-24.0073 -101.345 513.963
-65.8033 -145.304 513.934
35.9947 -115.383 513.851
-67.8706 -163.586 513.896
-30.1682 -209.352 513.758
-20.0285 -83.3769 513.979
-0.398049 -174.099 513.781
-38.4933 -112.855 513.944
-47.866 -115.593 513.951
36.1319 -172.799 513.734
-45.6887 -115.41 513.944
38.113 -225.071 513.629
-23.6286 -170.912 513.805
62.0165 -117.582 513.792
29.9904 -221.425 513.638
25.4105 -179.096 513.721
61.8376 -237.771 513.562
-58.0683 -121.451 513.935
23.7768 -201.11 513.679
-30.2118 -205.349 513.737
-27.9033 -169.295 513.8
23.701 -199.597 513.673
66.3247 -241.59 513.534
-69.862 -165.197 513.853
42.0979 -117.37 513.79
-37.902 -165.27 513.804
24.6821 -198.383 513.658
3.56092 -177.918 513.724
-26.0884 -170.546 513.776
-65.7562 -149.332 513.867
-35.9195 -111.711 513.897
-30.3169 -203.467 513.717
30.7974 -222.606 513.598
-44.006 -115.337 513.889
-65.8971 -155.282 513.838
-12.0374 -82.3878 513.901
-6.06634 -82.5356 513.881
-29.8849 -111.111 513.854
4.1347 -179.051 513.68
-65.8284 -139.551 513.844
-13.9072 -82.6674 513.878
-65.942 -159.468 513.797
-31.8501 -167.133 513.736
25.1321 -198.356 513.59
-24.0517 -99.3807 513.837
36.9102 -224.611 513.52
-33.5591 -220.123 513.62
64.1311 -239.287 513.454
-65.9905 -127.338 513.824
0.263149 -174.979 513.646
-43.9182 -149.457 513.749
-53.9287 -118.916 513.81
34.0222 -113.633 513.701
-7.50136 -82.6002 513.813
-3.77335 -82.5741 513.807
-24.143 -103.332 513.791
22.6689 -213.413 513.523
27.6241 -177.054 513.584
4.21104 -82.5952 513.782
-65.9799 -153.34 513.74
2.17096 -82.5187 513.776
-65.8869 -157.45 513.722
12.0257 -83.2372 513.748
-30.3371 -217.284 513.552
22.4093 -201.454 513.506
-65.9515 -161.397 513.687
-30.4788 -211.219 513.539
-59.7227 -122.706 513.731
29.6591 -176.574 513.505
-39.7274 -164.778 513.618
-34.0174 -111.517 513.698
-67.9656 -129.4 513.709
-35.369 -166.856 513.579
-63.9869 -141.415 513.662
-32.1706 -111.491 513.676
-26.0009 -109.093 513.67
-30.1519 -213.663 513.481
22.8579 -215.728 513.407
22.632 -204.634 513.422
66.0321 -243.534 513.29
66.2515 -117.559 513.525
24.112 -217.342 513.393
19.8255 -85.4219 513.643
-30.4542 -199.073 513.49
-17.8495 -82.9579 513.69
-56.6787 -120.878 513.669
64.37 -240.962 513.279
-40.0574 -114.679 513.647
5.18988 -181.309 513.441
50.0496 -117.44 513.501
-70.0856 -169.543 513.559
-50.0114 -115.973 513.626
-43.937 -151.372 513.549
-43.8715 -145.383 513.554
20.3875 -97.4683 513.556
22.5026 -209.684 513.339
-64.0107 -149.535 513.559
-24.0799 -105.37 513.586
37.889 -117.058 513.481
-70.2885 -171.335 513.519
-28.5709 -110.886 513.574
-27.4284 -200.094 513.397
-43.8662 -159.381 513.491
-28.5604 -205.072 513.383
-55.9881 -120.005 513.571
-69.9972 -167.238 513.501
-63.9278 -147.367 513.523
-68.1389 -135.269 513.549
-43.9707 -155.495 513.477
-63.9522 -143.339 513.518
-51.8425 -117.289 513.549
20.3137 -87.1957 513.507
-24.2982 -107.389 513.524
20.5661 -91.4747 513.49
-11.8781 -82.6332 513.548
-68.2176 -133.493 513.52
-69.9446 -173.458 513.448
-22.2942 -171.097 513.388
-43.8454 -157.243 513.439
22.4892 -203.347 513.261
40.5095 -226.733 513.194
-68.1841 -131.199 513.513
21.9458 -200.042 513.265
-43.9436 -143.381 513.456
-30.3669 -218.622 513.29
20.5244 -101.516 513.434
20.5033 -99.4383 513.434
-43.9794 -147.417 513.422
20.4575 -103.422 513.418
8.1808 -82.8627 513.472
-43.8442 -153.434 513.401
-62.3214 -124.685 513.478
-68.0444 -137.346 513.458
-43.8751 -161.268 513.38
-68.2017 -165.011 513.402
20.6328 -107.384 513.379
-63.9499 -155.384 513.4
59.0638 -236.193 513.086
-41.7921 -163.341 513.352
20.4035 -95.4058 513.39
21.0438 -109.48 513.359
0.432774 -82.7661 513.434
-32.4098 -138.022 513.371
-63.9538 -145.419 513.396
37.5672 -172.85 513.211
-65.9639 -163.162 513.363
24.3554 -219.238 513.14
4.5086 -181.01 513.235
-63.8717 -161.41 513.359
-29.5973 -168.802 513.298
10.1224 -83.1128 513.401
20.5005 -93.5807 513.36
22.3931 -207.236 513.133
20.363 -105.509 513.322
-63.9374 -140.102 513.355
-63.745 -151.313 513.332
34.4761 -114.593 513.262
-35.8031 -139.363 513.304
-63.9624 -153.377 513.314
-22.1677 -85.3746 513.38
-45.0847 -162.45 513.263
20.4918 -89.4103 513.308
-26.5097 -199.998 513.151
-28.7735 -201.355 513.147
-28.7725 -208.592 513.128
-45.0831 -157.312 513.245
22.6236 -111.038 513.228
-45.3101 -142.066 513.251
-61.7786 -141.619 513.27
-22.3912 -89.1378 513.311
-64.0033 -157.209 513.238
-68.6295 -167.417 513.214
-22.5236 -87.2743 513.303
-63.9886 -159.607 513.222
-62.5633 -151.118 513.232
67.8664 -242.891 512.889
-29.998 -215.359 513.067
-22.5306 -95.6944 513.278
38.6874 -172.344 513.052
-22.6411 -91.3458 513.274
-43.2649 -163.325 513.166
-62.1243 -147.325 513.211
-43.9465 -141.9 513.195
-45.4537 -153.062 513.167
-62.59 -143.11 513.204
-41.6452 -164.868 513.134
-62.2851 -155.065 513.179
-62.7363 -161.061 513.166
-45.0753 -151.548 513.155
-66.8194 -129.227 513.225
-31.0315 -198.147 513.047
-22.6642 -93.3749 513.226
-45.8407 -149.63 513.146
-45.2537 -159.781 513.125
-22.4369 -99.485 513.207
-45.7286 -143.597 513.148
-62.2833 -145.393 513.165
-1.75632 -82.7285 513.201
-60.4714 -145.211 513.159
2.24308 -178.668 513.014
18.3189 -84.7149 513.164
-22.6303 -97.5416 513.192
-24.2467 -108.535 513.173
-45.6992 -147.429 513.122
-22.6621 -101.517 513.177
-45.1841 -155.269 513.105
-28.7638 -213.508 512.973
-60.3178 -147.317 513.136
-64.2377 -163.003 513.101
-47.3346 -147.006 513.103
-45.811 -145.234 513.096
-60.6927 -142.934 513.116
-28.7618 -210.778 512.938
23.2867 -205.773 512.874
-66.0433 -165.404 513.059
-62.0775 -157.408 513.067
-61.8181 -149.371 513.062
-60.913 -141.562 513.065
-45.5151 -160.71 513.008
-66.5733 -137.716 513.074
-31.0217 -210.756 512.885
-62.4936 -153.549 513.032
65.5027 -239.932 512.691
-22.8823 -105.338 513.041
-48.2273 -160.546 512.968
23.2828 -201.666 512.787
35.4962 -221.552 512.733
-62.7107 -158.732 512.956
-66.3382 -132.492 513.006
-29.8867 -198.739 512.824
-65.4231 -162.345 512.93
-64.524 -126.827 512.978
23.7334 -181.29 512.746
-44.5996 -147.85 512.892
-64.9654 -155.996 512.889
19.2144 -85.3946 512.895
-30.5643 -168.187 512.803
-23.3286 -103.046 512.899
-63.6055 -141.509 512.872
-39.1678 -113.904 512.881
-44.5912 -153.705 512.796
-63.4845 -159.026 512.808
-44.1372 -159.582 512.779
-44.5921 -145.412 512.806
-69.2527 -165.924 512.799
-23.3271 -94.8936 512.866
-44.07 -161.965 512.749
61.2519 -237.936 512.453
27.5676 -219.654 512.527
-23.3242 -105.516 512.802
23.3842 -213.21 512.529
-63.1394 -148.718 512.762
19.6114 -93.1136 512.756
-69.1283 -173.362 512.716
-63.3651 -144.192 512.758
-63.439 -147.808 512.746
-29.2851 -207.378 512.59
21.6955 -110.245 512.703
-46.0934 -143.219 512.729
-63.9653 -151.5 512.733
-46.1217 -153.587 512.706
19.6034 -105.496 512.708
-44.5832 -152.32 512.704
-46.1996 -149.155 512.711
-44.4001 -157.651 512.679
-61.8154 -143.58 512.726
-62.0025 -147.46 512.714
-26.9407 -110.252 512.736
65.8858 -241.287 512.366
-64.1105 -155.633 512.689
19.7284 -99.3132 512.678
-65.9414 -163.566 512.659
-23.3198 -107.306 512.706
23.4181 -209.973 512.445
-62.014 -149.316 512.666
-46.1364 -145.517 512.645
19.5071 -87.541 512.654
-29.577 -201.876 512.499
-67.3817 -131.865 512.679
23.5666 -217.715 512.398
-63.825 -161.542 512.616
-63.4238 -153.352 512.623
-63.619 -157.586 512.615
23.9438 -206.49 512.406
-0.698678 -173.964 512.493
-36.429 -166.115 512.552
-65.8384 -138.731 512.64
-62.0374 -141.351 512.629
-46.2323 -147.35 512.597
-69.6756 -167.285 512.581
19.4741 -103.389 512.581
-45.9994 -157.421 512.566
-32.3603 -137.81 512.582
-61.8578 -155.484 512.586
-61.6122 -145.355 512.603
22.084 -205.349 512.38
23.717 -197.893 512.391
-42.3108 -140.674 512.579
19.293 -97.1925 512.579
-46.1651 -155.418 512.556
-67.646 -133.208 512.624
-62.046 -157.418 512.564
33.3701 -114.123 512.507
-37.3372 -112.033 512.603
67.2509 -241.671 512.223
-46.1782 -159.246 512.518
19.3954 -91.4109 512.551
-29.4095 -209.31 512.392
-61.8157 -151.518 512.541
-61.83 -153.4 512.533
19.5398 -101.275 512.523
-69.4807 -171.544 512.508
-65.9592 -129.44 512.573
19.4711 -107.444 512.501
-46.184 -151.308 512.502
-42.5724 -163.553 512.462
23.2612 -198.766 512.31
21.7109 -201.41 512.302
-25.3414 -170.321 512.417
-61.304 -124.233 512.549
-29.6969 -215.244 512.334
65.999 -243.219 512.151
-67.7229 -137.161 512.523
-47.9545 -147.475 512.471
19.4002 -89.3973 512.49
40.8834 -226.748 512.205
-46.0062 -161.395 512.429
64.1768 -239.371 512.137
22.1895 -211.271 512.237
-29.5859 -203.333 512.313
-48.0011 -149.426 512.432
-38.0563 -166.072 512.386
21.9613 -213.643 512.211
-69.4263 -169.214 512.41
28.1037 -221.643 512.183
-34.0075 -138.066 512.412
25.8538 -219.731 512.181
-21.605 -91.4124 512.477
-47.9482 -143.414 512.405
-67.493 -135.448 512.445
-63.0973 -145.454 512.42
21.8587 -209.647 512.187
-29.7777 -213.406 512.245
-27.9875 -170.084 512.322
19.3965 -95.3581 512.391
-44.0042 -163.514 512.341
-29.4443 -217.349 512.212
22.0964 -207.351 512.16
-67.7229 -165.702 512.349
-21.0464 -85.3173 512.431
-65.5503 -127.751 512.407
-21.5953 -89.5136 512.416
22.3001 -199.459 512.154
-47.928 -159.39 512.313
-33.4643 -219.954 512.171
-47.9768 -145.38 512.328
-42.0355 -115.471 512.375
35.8028 -115.915 512.266
-32.0382 -167.887 512.256
21.671 -203.361 512.117
-47.888 -151.396 512.297
-47.8872 -153.453 512.289
15.9154 -84.2821 512.323
2.73654 -178.914 512.163
-59.9406 -143.505 512.307
29.6249 -221.505 512.044
-29.6212 -211.257 512.14
64.1043 -241.597 511.959
-21.5368 -87.3599 512.356
36.2445 -172.707 512.117
-63.7619 -139.094 512.31
-28.1146 -199.757 512.147
9.84961 -83.5388 512.309
-21.9691 -99.4488 512.32
40.0534 -225.754 512.001
-66.0061 -137.433 512.302
-61.854 -159.366 512.255
26.5719 -112.704 512.224
-21.8709 -95.2692 512.318
-29.4692 -205.321 512.12
23.8786 -112.062 512.22
-25.9508 -170.862 512.175
-66.0089 -131.357 512.298
-46.0732 -141.371 512.244
-28.0079 -203.451 512.082
60.2176 -117.531 512.121
-59.8707 -149.426 512.217
42.1601 -227.136 511.934
-47.9778 -155.43 512.184
-59.931 -147.368 512.207
62.1365 -239.45 511.876
35.8478 -223.468 511.94
-59.9495 -151.438 512.198
-0.0199606 -175.329 512.075
-39.9771 -115.253 512.237
-21.9427 -103.364 512.234
-59.9445 -153.444 512.189
57.1181 -236.541 511.879
26.3047 -112.273 512.15
-1.87344 -82.9349 512.239
-28.0079 -215.397 512.023
-47.9275 -141.545 512.182
-47.9247 -157.354 512.153
-59.8103 -145.365 512.191
37.7049 -172.217 512.003
-35.949 -138.691 512.161
-23.9744 -109.356 512.191
19.8641 -109.332 512.133
21.9875 -111.341 512.124
34.168 -222.008 511.895
62.0151 -117.602 512.036
-39.9095 -165.739 512.076
-66.01 -165.275 512.109
36.1281 -116.66 512.066
24.0127 -219.54 511.89
3.36809 -178.764 511.992
-49.9547 -147.401 512.117
-37.878 -113.534 512.164
-61.853 -161.389 512.101
-63.7949 -163.603 512.096
-26.2552 -207.021 511.963
-9.96313 -82.7879 512.169
1.92296 -82.8755 512.152
17.9807 -85.5075 512.126
-55.231 -120.069 512.153
-22.037 -171.298 512.01
-28.1218 -207.447 511.946
-33.8814 -167.33 512.026
-21.8477 -105.398 512.122
60.2664 -237.525 511.762
-44.0117 -140.967 512.076
-59.7531 -141.492 512.095
56.2258 -117.545 511.982
-58.0105 -140.087 512.087
41.5284 -225.664 511.796
-41.8575 -165.354 512.016
-35.8221 -112.048 512.105
-60.1296 -159.414 512.046
-50.0111 -143.421 512.063
-59.8893 -155.461 512.051
-49.889 -149.335 512.047
2.01262 -177.261 511.922
-49.8887 -145.425 512.043
1.33476 -176.253 511.916
64.2666 -243.063 511.704
27.3129 -112.352 511.994
60.2611 -239.023 511.714
57.835 -117.503 511.942
29.8939 -113.059 511.979
32.2736 -173.544 511.858
-19.677 -84.0861 512.092
-21.4513 -93.3259 512.069
-38.122 -139.161 512.005
8.0921 -83.4866 512.046
22.0578 -217.425 511.775
-57.9046 -145.379 512.007
-5.74341 -82.8442 512.052
-49.9396 -159.45 511.959
34.9816 -172.382 511.823
-21.4473 -101.377 512.028
38.2551 -172.83 511.813
34.1602 -115.271 511.918
-50.0013 -151.319 511.961
28.0838 -112.854 511.93
-21.5665 -97.3918 512.023
25.0448 -179.603 511.808
33.6259 -172.892 511.807
-67.8884 -169.401 511.937
-65.9958 -133.428 512
-57.8055 -149.548 511.959
-57.8458 -143.291 511.965
56.64 -236.431 511.641
20.8087 -201.371 511.751
-63.3679 -125.906 511.995
-21.9692 -107.415 511.974
39.9446 -171.912 511.768
-60.0459 -123.44 511.988
5.96567 -83.2833 511.975
38.282 -225.455 511.665
18.0892 -89.4598 511.934
18.0847 -93.4119 511.925
32.0284 -113.597 511.869
-56.0337 -149.376 511.916
-27.9742 -205.362 511.775
13.833 -84.1815 511.941
-25.694 -109.931 511.942
-61.9953 -163.236 511.886
18.1832 -107.54 511.884
-14.0249 -83.2073 511.969
-35.9646 -167.006 511.841
-52.0168 -117.854 511.951
-54.0001 -140.34 511.909
-47.9227 -161.505 511.861
20.8246 -209.284 511.682
27.8634 -176.754 511.732
22.206 -215.59 511.663
-55.9657 -141.454 511.903
32.2599 -221.982 511.637
-27.8925 -201.207 511.747
24.198 -220.822 511.64
-29.9463 -169.371 511.797
-67.7446 -167.372 511.848
66.1369 -117.645 511.765
-62.016 -139.544 511.891
-54.0148 -149.439 511.862
-12.0669 -83.0505 511.93
25.6718 -178.843 511.702
-29.7963 -218.797 511.698
-0.110626 -83.0616 511.907
-57.6632 -121.717 511.901
-51.9613 -145.517 511.848
18.0112 -87.4337 511.864
-27.9997 -209.424 511.695
-49.9256 -157.398 511.818
-50.3853 -116.782 511.894
5.62401 -181.258 511.7
-59.8631 -157.401 511.828
-49.9261 -153.413 511.823
-4.01033 -82.893 511.887
-24.067 -170.945 511.748
-46.0168 -115.563 511.877
31.5092 -174.737 511.664
-33.9415 -111.692 511.867
12.1741 -83.9777 511.846
-31.8048 -219.279 511.651
-55.9727 -145.383 511.818
-53.9898 -143.475 511.812
26.3908 -177.557 511.638
-51.9565 -143.471 511.802
-51.925 -159.41 511.772
26.1611 -221.042 511.553
18.0088 -97.3567 511.792
-26.1167 -199.596 511.655
-39.874 -139.515 511.783
18.0894 -95.3867 511.789
-53.9664 -147.408 511.785
-59.9424 -139.942 511.806
-29.9633 -111.499 511.813
30.2833 -175.301 511.61
-64.0398 -127.443 511.819
-57.8227 -155.426 511.759
-28.2359 -217.227 511.604
-45.8724 -163.26 511.727
-19.9183 -85.3182 511.834
18.1279 -99.317 511.758
-51.9513 -151.36 511.751
20.969 -215.618 511.534
20.4691 -110.77 511.73
-56.0676 -143.362 511.768
-59.8858 -161.332 511.739
-57.8226 -147.423 511.757
-1.82616 -173.544 511.635
22.6834 -219.04 511.516
-57.9975 -159.446 511.731
18.1779 -103.414 511.734
-57.8349 -141.274 511.762
20.5184 -199.675 511.549
-49.9162 -155.415 511.721
4.13424 -83.2222 511.784
-51.9508 -141.424 511.747
-56.0121 -153.545 511.723
-38.4811 -114.712 511.772
-28.1109 -213.172 511.573
-68.0205 -173.108 511.697
62.6803 -241.182 511.398
-56.0127 -147.289 511.726
-57.9247 -153.524 511.715
3.36543 -178.172 511.588
-53.9804 -145.481 511.722
-8.11698 -82.8215 511.778
-53.8476 -141.51 511.721
36.1044 -225.303 511.443
-49.8911 -141.449 511.709
-56.1082 -140.093 511.716
20.7092 -205.216 511.485
-57.763 -151.462 511.673
-47.8845 -115.792 511.724
4.15518 -180.747 511.53
-51.9303 -149.349 511.66
-57.8635 -157.466 511.643
-30.037 -197.712 511.531
-64.1088 -164.972 511.635
-51.9544 -147.333 511.651
-61.9007 -125.136 511.703
20.6941 -211.151 511.43
17.9995 -91.349 511.652
-56.0427 -151.419 511.636
-51.9634 -155.385 511.622
-65.8903 -135.309 511.674
-49.4615 -116.122 511.688
-49.969 -161.322 511.601
18.0025 -101.387 511.62
-64.5405 -129.393 511.672
-15.9587 -83.2516 511.687
-43.8591 -115.527 511.649
-56.3204 -120.945 511.651
-20.1122 -87.3428 511.663
-53.9165 -155.381 511.57
-26.3651 -203.506 511.441
-51.9068 -157.397 511.559
-55.994 -159.371 511.556
16.288 -85.1777 511.594
-38.1606 -166.732 511.513
-53.9219 -153.395 511.557
-67.8896 -171.351 511.538
-28.0272 -211.389 511.406
-55.942 -157.366 511.538
-53.9676 -119.295 511.602
34.2358 -223.117 511.283
-51.9155 -153.273 511.514
-31.7476 -168.649 511.459
-26.2379 -204.995 511.383
-22.2144 -108.945 511.554
-26.6441 -201.171 511.385
-57.7933 -161.34 511.498
-18.1679 -83.7324 511.589
20.8686 -217.588 511.285
-64.2686 -137.493 511.544
-60.7346 -124.671 511.562
-20.143 -93.4374 511.564
20.583 -213.106 511.285
-27.845 -110.961 511.535
17.9976 -105.42 511.474
20.5528 -203.646 511.282
-53.9533 -151.329 511.464
-66.4359 -175.11 511.435
-26.2859 -213.203 511.311
64.7313 -117.628 511.362
-66.3361 -167.388 511.438
40.3671 -117.183 511.391
18.1753 -109.07 511.434
-25.813 -209.43 511.304
-53.8069 -161.395 511.43
-43.7411 -164.951 511.404
-55.9947 -155.262 511.438
20.7313 -207.542 511.238
54.1047 -232.82 511.147
-20.1621 -97.5737 511.496
-19.9858 -89.4367 511.509
-56.0721 -161.309 511.419
-51.9728 -161.271 511.407
-54.0431 -159.442 511.413
-43.1187 -140.209 511.432
-47.7322 -163.282 511.394
62.217 -243.168 511.094
22.084 -198.344 511.223
32.4684 -114.469 511.361
-32.0629 -111.555 511.45
-27.9951 -170.413 511.335
44.6298 -227.617 511.113
-60.0014 -163.298 511.359
-58.4604 -122.604 511.412
-45.3643 -164.72 511.311
-36.281 -112.926 511.379
-20.1829 -91.2545 511.379
16.8992 -97.5386 511.311
16.8092 -93.5243 511.319
-25.8523 -110.742 511.341
-53.9344 -157.313 511.286
-66.5637 -169.26 511.261
28.3892 -222.623 511.037
-26.8553 -214.537 511.11
-64.3142 -131.377 511.31
45.2936 -227.554 510.969
-49.754 -163.098 511.212
-19.9625 -95.5507 511.298
-35.7336 -138.05 511.235
-53.4752 -162.703 511.209
-20.2658 -101.141 511.273
-58.0267 -163.029 511.205
-64.4435 -133.395 511.262
65.5723 -243.293 510.883
-26.4015 -211.809 511.057
16.67 -103.231 511.2
-2.95167 -173.485 511.081
16.8952 -99.3199 511.191
16.4899 -87.1438 511.208
34.934 -116.672 511.126
-20.3953 -103.461 511.223
-24.5962 -206.835 511.025
-20.4162 -105.478 511.208
-66.246 -173.802 511.129
43.7083 -227.516 510.884
-52.1179 -140.137 511.169
-26.3975 -216.736 510.979
-41.8909 -139.826 511.134
-20.0025 -99.2259 511.171
40.7755 -226.6 510.853
-64.3452 -135.373 511.158
16.8934 -89.8376 511.135
16.8923 -105.391 511.101
16.5548 -91.3582 511.126
-65.1866 -171.229 511.076
-50.0823 -140.121 511.111
-20.542 -107.201 511.132
16.8918 -101.329 511.087
-39.0267 -166.705 511.033
16.7414 -95.3157 511.084
-62.7099 -138.315 511.106
-29.0999 -204.542 510.927
-51.4267 -163.095 511.025
-27.7464 -204.985 510.91
-52.562 -118.696 511.103
16.8895 -108.53 511.017
-27.2936 -212.183 510.872
-18.6461 -85.4546 511.087
-62.921 -164.887 510.989
27.998 -222.5 510.754
21.3896 -201.785 510.798
16.8878 -108.068 510.966
-62.4747 -131.079 511.026
-18.7345 -90.4967 511.038
21.3887 -198.623 510.779
-27.7417 -201.795 510.823
62.8369 -238.219 510.635
-18.7338 -87.337 511.019
17.3374 -99.9453 510.929
-54.7965 -154.944 510.912
-53.8948 -153.591 510.911
-56.1477 -158.997 510.899
-29.0904 -213.489 510.76
-27.2881 -207.182 510.769
21.685 -214.656 510.678
-25.042 -110.313 510.921
21.8338 -218.398 510.647
-66.9604 -170.25 510.846
53.3679 -232.332 510.571
-55.6918 -153.573 510.853
-56.5927 -156.727 510.847
-58.3977 -148.167 510.864
63.6114 -243.009 510.522
17.334 -107.138 510.829
11.4752 -84.1572 510.878
-61.103 -138.702 510.868
25.4355 -220.173 510.584
-51.6276 -161.778 510.782
-57.7127 -162.117 510.785
-55.3837 -161.816 510.783
-55.6841 -152.05 510.783
42.5498 -226.897 510.507
-67.0982 -170.97 510.751
-29.082 -218.383 510.612
-65.3697 -166.16 510.744
17.3313 -94.9528 510.75
-66.9426 -174.711 510.71
-54.7777 -152.186 510.736
-48.0148 -161.642 510.709
-52.9731 -159.166 510.718
21.3777 -214.287 510.514
-19.3445 -91.5201 510.772
-46.3584 -164.181 510.663
15.9372 -93.3481 510.713
-67.3879 -173.008 510.67
-27.5024 -199.442 510.568
-59.8567 -163.949 510.675
-19.6753 -95.253 510.748
15.3772 -85.5569 510.712
-48.255 -163.834 510.646
-49.3603 -161.845 510.64
-19.6742 -97.3004 510.719
-23.7915 -110.151 510.693
-50.0797 -163.538 510.625
-54.5449 -140.449 510.666
-27.4231 -213.523 510.484
-54.4041 -161.431 510.613
15.9067 -91.3625 510.642
21.5233 -211.238 510.405
-50.2605 -140.44 510.63
17.3265 -103.262 510.608
61.8524 -241.411 510.284
-25.634 -203.374 510.466
-17.3693 -83.8986 510.676
-19.3219 -87.3524 510.67
62.2521 -242.642 510.271
-19.1709 -93.357 510.651
16.1597 -105.337 510.582
-29.2977 -197.369 510.449
-63.3251 -131.423 510.611
-61.3646 -163.993 510.545
19.925 -213.599 510.344
15.861 -95.341 510.567
-65.4921 -167.403 510.527
15.8097 -87.5456 510.562
35.6645 -223.533 510.282
-25.354 -199.6 510.396
-55.7469 -139.152 510.534
24.7441 -222.736 510.262
16.1008 -89.2138 510.516
-63.465 -137.108 510.528
-52.497 -159.314 510.47
19.709 -209.423 510.274
-19.5039 -103.394 510.521
-27.2648 -209.257 510.334
-19.5754 -105.393 510.513
34.4345 -116.508 510.408
15.9702 -99.4027 510.457
-51.4495 -118.032 510.506
16.0988 -97.3749 510.454
-19.5704 -101.572 510.491
20.4647 -220.464 510.215
-19.1655 -88.8263 510.507
-19.6154 -99.5773 510.487
-34.2512 -137.232 510.43
23.8731 -220.779 510.198
-63.5904 -129.418 510.479
-63.3087 -128.011 510.479
17.82 -109.851 510.406
-25.7527 -205.211 510.284
-65.835 -171.451 510.397
-52.0591 -163.425 510.393
-57.8622 -163.796 510.4
-63.6066 -135.487 510.459
5.60821 -181.319 510.28
19.7333 -205.467 510.216
-63.6554 -133.283 510.448
-40.4378 -166.031 510.349
33.7547 -115.682 510.344
-16.011 -83.8885 510.462
-30.2662 -169.999 510.32
28.0444 -176.873 510.23
-55.8309 -163.396 510.358
-61.5017 -125.872 510.435
63.582 -117.492 510.284
16.0998 -107.358 510.363
15.8856 -103.398 510.369
19.5183 -199.471 510.182
-39.7001 -115.428 510.415
19.6039 -203.297 510.171
33.5952 -173.113 510.205
-65.785 -173.405 510.333
-25.9568 -209.575 510.194
61.4094 -239.725 510.005
-0.180906 -175.76 510.202
38.0266 -117.149 510.26
-25.6814 -201.458 510.182
-17.7779 -85.3947 510.385
34.2467 -223.42 510.049
15.9652 -101.398 510.297
35.816 -225.338 510.039
21.9039 -219.334 510.067
-25.7352 -213.481 510.136
37.9093 -224.833 510.027
19.8431 -215.473 510.068
3.62576 -179.743 510.154
-27.8001 -217.722 510.12
67.5077 -118.031 510.179
24.5179 -112.193 510.245
59.6045 -237.506 509.964
-18.0337 -87.39 510.342
-48.8798 -116.489 510.327
-54.0603 -163.361 510.247
23.4598 -196.999 510.075
19.596 -207.155 510.055
22.0329 -197.67 510.064
39.8963 -225.765 509.986
-19.7577 -107.524 510.284
19.6431 -201.408 510.057
39.983 -171.797 510.086
-59.8315 -138.841 510.275
-21.4932 -171.372 510.161
-37.7235 -167.046 510.181
-65.5957 -169.415 510.21
23.1561 -219.019 509.996
-59.4566 -123.682 510.278
34.5969 -225.495 509.957
31.56 -174.786 510.052
-61.9503 -127.4 510.25
-31.5995 -219.409 510.031
-63.8246 -165.8 510.17
-21.7151 -109.625 510.21
21.8129 -112.011 510.149
62.0929 -117.558 510.08
0.384944 -176.736 510.05
-25.8725 -171.201 510.069
54.0796 -234.587 509.843
-32.6524 -168.194 510.079
19.9688 -211.303 509.921
26.605 -177.609 509.972
-29.8164 -219.263 509.965
-24.1631 -171.205 510.046
32.0369 -222.006 509.878
-18.0034 -89.3463 510.19
19.8125 -217.552 509.888
32.3787 -174.002 509.952
-18.0143 -91.4021 510.169
-57.8641 -138.952 510.132
-57.4172 -122.154 510.163
-25.8951 -207.405 509.962
-39.916 -166.964 510.053
-45.7119 -115.549 510.154
-42.038 -165.807 510.055
30.1555 -113.563 510.056
19.9413 -111.592 510.072
14.0365 -85.4444 510.123
-3.29514 -173.462 509.982
60.191 -239.431 509.775
-65.4168 -174.758 510.057
-25.8656 -211.173 509.929
56.0277 -235.385 509.77
26.076 -178.708 509.898
29.8058 -221.908 509.809
53.9115 -234.026 509.747
57.8668 -235.769 509.723
-8.19463 -171.968 509.926
-17.9994 -93.3774 510.077
-44.0887 -165.459 509.975
-61.9844 -165.337 509.995
-1.8207 -83.2736 510.069
27.9002 -113.339 509.968
30.2726 -175.541 509.848
24.3487 -179.813 509.842
20.3628 -219.345 509.773
9.91367 -84.1473 510.038
-61.9029 -137.394 510.028
-26.0106 -111.132 510.025
1.5546 -177.682 509.86
14.1559 -89.4132 510.001
-61.8823 -129.349 510.025
-53.9249 -119.736 510.032
-28.1412 -170.235 509.903
-26.0003 -215.32 509.815
-2.94462 -174.421 509.861
-27.7874 -111.376 510.008
-49.967 -164.996 509.934
-61.9907 -131.313 510.01
-41.7768 -115.644 510.007
25.4026 -112.347 509.923
-18.0466 -99.414 510.003
-27.6852 -216.234 509.795
-46.0437 -165.278 509.911
-30.1639 -170.601 509.874
-24.0864 -213.679 509.781
-51.865 -139.353 509.95
-18.0461 -95.3601 509.985
-35.8997 -113.466 509.973
8.07968 -84.0075 509.969
-33.7462 -167.778 509.867
-33.658 -112.019 509.967
58.4391 -237.292 509.612
-5.72033 -83.2595 509.982
26.29 -221.899 509.673
60.7172 -241.201 509.591
-47.94 -139.792 509.91
-37.2936 -114.301 509.942
-31.8952 -169.434 509.829
-37.68 -137.897 509.893
-1.72292 -174.133 509.772
16.1768 -109.41 509.868
2.04228 -83.5137 509.933
-17.9943 -97.4007 509.933
-49.9629 -139.487 509.893
25.3884 -222.913 509.638
-41.997 -138.972 509.873
-62.0881 -135.491 509.905
52.2518 -231.989 509.571
-27.7601 -170.797 509.789
23.1425 -180.662 509.697
32.806 -222.674 509.606
-23.7761 -110.897 509.877
24.1966 -112.622 509.809
-55.8104 -121.4 509.878
6.05365 -83.8217 509.866
-31.8135 -111.734 509.863
18.1507 -215.455 509.596
-17.9665 -101.435 509.854
-28.1841 -219.318 509.645
-54.1554 -139.169 509.828
35.2818 -172.095 509.635
26.0439 -112.909 509.753
14.0509 -87.3811 509.816
-3.8442 -83.3122 509.847
-35.9625 -137.329 509.787
-61.9641 -133.449 509.826
-19.8097 -170.768 509.701
-43.9956 -115.701 509.829
-25.877 -218.851 509.604
-12.046 -83.5698 509.835
14.1028 -91.4114 509.785
-29.9354 -111.613 509.8
32.1836 -115.133 509.708
3.80342 -83.7225 509.801
-47.705 -116.032 509.803
-24.1784 -199.267 509.607
-28.5756 -197.271 509.617
36.0945 -116.881 509.679
17.9709 -110.951 509.711
-18.0635 -103.417 509.769
18.4885 -209.447 509.518
-25.8748 -217.429 509.56
18.2585 -201.319 509.53
66.3098 -117.677 509.62
14.1911 -99.4301 509.718
19.8186 -197.853 509.522
31.4602 -113.862 509.652
-1.72276 -175.16 509.58
18.0378 -211.208 509.486
-64.0121 -167.353 509.672
-38.1403 -115.061 509.735
-0.0201454 -83.5203 509.742
-43.8072 -139.539 509.693
-47.8889 -165.009 509.648
-24.2101 -205.2 509.539
18.2324 -205.535 509.478
14.1881 -97.4734 509.684
-24.3558 -203.197 509.533
4.17597 -181.203 509.536
22.5688 -220.577 509.435
14.0997 -95.4633 509.677
-8.06014 -83.2365 509.727
16.3889 -200.813 509.474
2.37788 -179.292 509.533
-9.91554 -83.2924 509.726
-22.3731 -110.677 509.69
-36.3386 -114.658 509.695
-58.1871 -165.035 509.627
34.1024 -172.134 509.485
-60.0542 -165.3 509.621
-41.8393 -167.089 509.593
-23.8482 -207.338 509.49
28.2235 -222.207 509.394
36.6191 -172.49 509.472
14.087 -101.411 509.629
-52.5279 -119.04 509.679
-53.9175 -164.922 509.578
14.3947 -103.333 509.601
-24.2208 -209.645 509.452
-13.942 -83.9177 509.673
-63.8714 -169.377 509.575
-50.1646 -117.299 509.654
18.1502 -203.413 509.403
14.7223 -109.06 509.582
22.3273 -112.718 509.565
-63.7344 -175.262 509.56
18.046 -199.468 509.394
-62.2452 -166.973 509.558
52.7836 -234.89 509.28
-59.8307 -125.324 509.628
42.0001 -226.363 509.305
-52.0463 -165.082 509.539
-16.4746 -99.4819 509.606
29.4212 -176.506 509.386
47.6225 -172.45 509.355
38.1845 -171.779 509.366
18.2938 -213.445 509.313
-17.9562 -105.423 509.561
-16.0025 -85.2949 509.596
28.0717 -176.05 509.368
-19.9539 -109.154 509.546
-15.9406 -87.3687 509.577
14.1219 -105.429 509.503
14.0813 -93.3759 509.523
-63.859 -171.255 509.478
14.3072 -107.353 509.487
-18.1454 -107.398 509.525
-58.0663 -123.232 509.534
18.2698 -207.339 509.271
12.1189 -85.1795 509.504
18.4051 -198.265 509.282
-54.6429 -138.325 509.479
-55.9861 -164.832 509.427
-23.8847 -201.424 509.315
-16.0651 -91.4045 509.499
-24.5118 -214.665 509.273
-24.1525 -211.43 509.276
-63.7439 -173.333 509.397
-39.9151 -138.199 509.429
-34.2108 -112.843 509.455
-24.3607 -217.049 509.244
-59.9571 -137.675 509.43
58.8257 -238.61 509.066
18.6249 -218.657 509.151
12.7892 -105.928 509.347
-16.0189 -89.3505 509.411
-16.1461 -95.4597 509.397
-5.86174 -172.407 509.229
41.3147 -171.936 509.164
-62.3925 -169.8 509.303
12.4897 -93.5432 509.347
-45.7878 -139.632 509.329
48.2764 -172.377 509.14
-36.0454 -167.25 509.26
-58.6749 -129.078 509.357
-60.1232 -129.202 509.356
-33.5616 -169.072 509.239
18.3976 -217.503 509.079
10.7342 -84.8015 509.334
-58.1319 -138.192 509.323
-16.1045 -93.3228 509.351
-16.5746 -103.452 509.326
23.5641 -196.169 509.089
16.5099 -110.913 509.242
-16.1709 -97.4636 509.299
12.306 -87.4245 509.277
-16.4578 -101.422 509.286
-31.6954 -170.589 509.167
-14.4761 -89.6634 509.292
-62.5203 -173.564 509.193
-24.9521 -197.965 509.087
-60.068 -127.255 509.258
16.8235 -200.185 509.021
37.4867 -172.793 509.043
12.4642 -99.0901 509.182
-18.3078 -108.774 509.204
-55.9593 -138.245 509.186
-60.0428 -131.248 509.204
-60.6789 -133.306 509.2
-4.28759 -172.347 509.051
-16.6441 -107.463 509.167
21.5348 -220.348 508.906
-60.7203 -135.276 509.171
19.5147 -210.924 508.922
-56.8581 -122.519 509.186
-14.1736 -85.0025 509.191
2.89914 -180.407 508.98
12.6332 -106.925 509.097
12.3339 -97.3427 509.106
-22.7002 -201.059 508.958
-62.3246 -171.812 509.063
-5.85879 -172.322 508.977
12.7831 -89.4055 509.104
12.1955 -91.6732 509.096
-60.2851 -166.503 509.037
-25.8406 -217.198 508.892
12.4824 -103.172 509.054
12.2767 -95.1446 509.064
-16.6409 -108.566 509.072
-24.9429 -206.873 508.898
-16.516 -105.371 509.065
12.6016 -101.37 509.029
-44.7083 -166.483 508.977
10.9848 -90.8173 509.043
-14.3203 -87.455 509.082
57.2131 -235.973 508.707
-62.6721 -175.911 508.967
-14.1696 -91.9406 509.045
-2.49056 -87.4429 509.011
15.4731 -110.332 508.927
-14.1678 -94.6239 508.981
13.2276 -105.391 508.924
-54.5854 -120.664 508.943
-58.6267 -125.603 508.938
25.7869 -222.472 508.629
17.5972 -205.207 508.665
17.485 -203.636 508.664
45.0818 -226.938 508.579
17.2606 -199.371 508.665
-64.5989 -172.117 508.815
21.7487 -196.898 508.653
14.3483 -92.8039 508.853
12.1034 -86.07 508.861
17.7077 -213.413 508.61
13.3371 -103.573 508.818
13.2252 -96.6159 508.828
-4.28465 -172.232 508.71
-15.5108 -97.2351 508.838
-17.3061 -107.389 508.815
18.0515 -211.642 508.572
-15.5103 -95.223 508.822
17.3858 -201.485 508.578
11.8772 -95.6193 508.781
41.4848 -226.004 508.496
-25.1529 -212.589 508.607
-16.4077 -90.1008 508.802
-23.4695 -203.384 508.596
-63.3143 -167.183 508.714
28.9205 -222.409 508.486
-15.3595 -93.6883 508.779
-63.8341 -173.27 508.683
11.6517 -87.5458 508.738
-61.5221 -136.329 508.742
-53.4396 -138.568 508.723
-23.8187 -207.446 508.543
-63.2311 -175.651 508.647
11.875 -97.5198 508.691
11.9393 -91.1089 508.7
-59.4017 -166.018 508.652
-15.5074 -91.2541 508.724
-15.6562 -103.399 508.698
13.5199 -107.728 508.649
11.6182 -93.4773 508.677
-15.5074 -85.1493 508.725
-13.8339 -85.5142 508.712
33.4143 -116.093 508.59
59.4393 -117.43 508.552
-15.6852 -105.428 508.666
-23.5122 -209.331 508.48
-15.5063 -88.2858 508.691
59.8593 -241.495 508.306
-23.4646 -201.49 508.488
-35.2547 -114.089 508.661
-59.6268 -131.728 508.657
-15.3829 -99.4605 508.659
31.1688 -114.068 508.565
17.6108 -209.408 508.404
11.9691 -103.432 508.596
-52.1565 -138.539 508.614
55.609 -172.578 508.407
55.9992 -235.82 508.281
38.0451 -225.435 508.319
-11.6149 -84.0875 508.639
11.9684 -101.343 508.572
31.8711 -221.797 508.317
-4.73238 -98.5893 508.585
44.6157 -172.569 508.383
-23.8216 -215.439 508.39
-42.1982 -166.103 508.499
11.782 -99.5695 508.548
-23.8284 -213.648 508.382
-13.7726 -87.3726 508.602
13.8905 -109.546 508.523
-59.5512 -133.384 508.572
-42.4252 -138.74 508.529
26.6705 -177.944 508.36
38.5567 -172.557 508.345
-34.6417 -167.955 508.447
-59.6279 -135.377 508.539
12.0108 -105.274 508.495
8.05715 -84.2197 508.533
-43.9636 -165.811 508.445
54.1644 -234.085 508.183
-2.26315 -174.358 508.366
1.25083 -177.868 508.353
-27.3813 -218.298 508.315
-36.3636 -136.707 508.477
16.0751 -199.414 508.289
11.9395 -89.391 508.498
38.5463 -227.219 508.204
-59.4178 -129.534 508.501
-23.3192 -205.387 508.309
-13.8906 -91.3153 508.505
30.1376 -221.875 508.204
6.03742 -84.2129 508.492
33.792 -223.672 508.195
-13.9301 -93.4122 508.498
-59.4729 -127.468 508.493
-0.543305 -175.839 508.324
17.7998 -217.439 508.22
-23.62 -211.423 508.281
29.8873 -114.103 508.391
-61.8248 -171.259 508.399
52.1155 -172.633 508.241
-51.3945 -118.31 508.475
-15.4095 -101.436 508.456
23.793 -112.98 508.382
34.5133 -172.077 508.253
-28.0499 -220.507 508.238
-13.9286 -97.4401 508.443
-13.9168 -95.4689 508.446
9.94212 -85.4666 508.414
20.3836 -196.72 508.192
-29.5485 -170.748 508.304
-9.89071 -83.9794 508.437
40.2648 -172.06 508.205
-23.5651 -199.427 508.234
-61.8366 -175.522 508.328
10.0363 -87.3742 508.393
-45.9213 -166.006 508.32
31.5053 -174.84 508.202
-13.6138 -89.27 508.418
39.9571 -225.599 508.092
58.3037 -241.087 508.038
4.01732 -84.194 508.378
17.6456 -215.208 508.115
34.202 -225.44 508.069
57.7055 -237.281 508.014
-59.344 -136.785 508.351
-44.053 -138.759 508.325
-59.0093 -126.135 508.365
36.232 -225.397 508.049
-39.9806 -167.324 508.257
17.5556 -207.356 508.103
11.93 -107.471 508.294
-6.97094 -172.058 508.196
38.2045 -172.148 508.131
-48.0133 -138.903 508.306
3.99494 -181.006 508.14
59.5941 -239.883 507.957
64.1032 -117.342 508.17
52.6469 -234.881 507.964
-15.4942 -107.502 508.286
-19.7503 -170.703 508.168
-57.6029 -165.699 508.225
-30.0638 -170.255 508.169
17.8001 -197.507 508.052
21.879 -112.915 508.202
-27.8825 -171.025 508.158
-19.7339 -109.983 508.26
39.5067 -172.61 508.064
-61.5125 -169.199 508.198
-53.3175 -120.206 508.271
58.2423 -239.383 507.895
16.1421 -215.443 507.988
24.1097 -222.628 507.962
32.6305 -173.871 508.036
-35.9227 -167.681 508.137
10.0701 -95.3763 508.205
-4.72879 -107.708 508.2
-13.9344 -99.3694 508.226
-61.8037 -167.592 508.157
-13.9091 -101.367 508.216
-23.8277 -171.575 508.095
16.1523 -201.285 507.98
1.68339 -179.532 508.03
-37.7139 -115.405 508.199
25.7545 -178.714 507.997
-31.7096 -112.115 508.189
-33.9083 -113.533 508.183
-55.7608 -122.101 508.193
-17.8521 -109.509 508.167
-61.7655 -173.499 508.104
27.9134 -176.914 507.978
2.74418 -180.659 508.004
31.8441 -115.753 508.086
-27.9446 -219.667 507.957
34.0902 -173.188 507.961
-57.8019 -137.026 508.147
58.034 -117.609 508.031
-57.8654 -125.462 508.166
19.4827 -112.391 508.087
20.0348 -219.792 507.883
-13.885 -103.388 508.142
51.9591 -233.129 507.81
45.6211 -172.565 507.93
-50.9101 -138.404 508.12
54.1734 -235.253 507.8
51.9691 -171.961 507.91
-39.9226 -137.499 508.088
-31.8155 -170.586 508.013
-43.8913 -166.907 508.03
30.1433 -175.816 507.915
16.0068 -111.523 508.051
45.9812 -172.147 507.894
10.0251 -91.4693 508.09
10.0676 -99.3871 508.075
44.0164 -226.983 507.789
24.1164 -221.753 507.823
50.8455 -171.95 507.877
16.2476 -205.375 507.859
10.0672 -93.3335 508.069
-32.63 -169.855 507.981
-26.0805 -219.363 507.876
28.2094 -222.109 507.799
-57.6325 -124.048 508.087
51.4294 -231.493 507.744
55.8708 -233.953 507.733
-47.9324 -165.886 507.995
16.137 -209.475 507.829
54.1471 -172.106 507.844
-17.8744 -170.925 507.939
16.1119 -207.432 507.826
-22.0082 -201.389 507.881
-23.7359 -217.555 507.85
-22.025 -199.438 507.881
-47.5423 -116.197 508.065
-7.75383 -83.8067 508.071
-30.1522 -111.869 508.041
-59.9457 -167.394 507.976
-48.438 -116.643 508.054
-21.7577 -171.458 507.914
-11.9009 -85.4862 508.061
10.0663 -97.357 508.009
-5.93801 -83.7815 508.055
10.066 -101.39 507.999
10.0259 -89.3919 508.021
-53.8941 -165.806 507.961
16.0992 -203.335 507.796
-51.9117 -165.944 507.951
0.0315277 -177.08 507.861
-29.8194 -219.317 507.82
25.7422 -221.636 507.742
-42.2256 -167.186 507.928
-33.9699 -169.384 507.912
-13.9562 -105.359 508.005
32.0806 -223.308 507.724
10.0655 -103.402 507.976
-26.0142 -171.281 507.889
5.50615 -181.268 507.827
35.6021 -172.19 507.793
18.0682 -111.94 507.928
30.3481 -222.963 507.703
8.0367 -85.4492 507.982
-22.0513 -203.23 507.8
-57.8054 -127.452 507.988
-11.8992 -87.4927 507.996
-42.0798 -115.802 507.971
0.50274 -178.793 507.797
-21.9626 -111.179 507.948
-1.63825 -175.308 507.799
-45.9638 -115.815 507.962
-61.4166 -177.1 507.868
16.0831 -211.413 507.701
12.1161 -109.282 507.895
14.1869 -111.032 507.885
43.9316 -172.079 507.731
-45.9593 -138.87 507.91
-11.878 -89.3806 507.957
22.2249 -221.342 507.663
66.1836 -117.704 507.796
35.9535 -117.214 507.832
18.3467 -219.222 507.665
48.2906 -172.043 507.713
23.0496 -222.492 507.651
-49.9494 -165.629 507.849
-57.7984 -129.519 507.925
-1.81306 -83.7612 507.931
-3.96274 -173.344 507.762
-13.9136 -107.418 507.893
-55.8951 -165.634 507.837
2.06084 -83.9886 507.912
19.6892 -220.692 507.633
-49.8132 -117.505 507.908
56.2 -172.326 507.666
34.1463 -116.64 507.797
16.0911 -213.286 507.633
-57.9162 -135.368 507.874
-28.1043 -111.597 507.875
39.6806 -227.187 507.561
-35.6408 -168.664 507.768
-57.8442 -133.457 507.863
-57.8181 -131.455 507.866
-11.9161 -91.3598 507.88
10.1207 -107.479 507.812
-0.0202693 -83.8854 507.869
56.1504 -237.494 507.504
16.0162 -197.847 507.631
28.5745 -175.757 507.655
-22.0543 -209.615 507.655
-37.8717 -223.607 507.642
-3.82921 -83.8831 507.855
